"X","Y","Z","Intensity","ReturnNumber","NumberOfReturns","ScanDirectionFlag","EdgeOfFlightLine","Classification","ScanAngleRank","UserData","PointSourceId","GpsTime"
524030.700,4778999.450,1515.930,11428.000,1.000,0.000,0.000,0.000,3.000,0.000,0.000,4.000,586328.101
524024.180,4778999.970,1514.490,7360.000,1.000,0.000,0.000,0.000,2.000,0.000,0.000,0.000,586328.094
524025.060,4778999.870,1514.780,8716.000,1.000,0.000,0.000,0.000,2.000,0.000,0.000,0.000,586328.094
524026.030,4778999.750,1514.940,9814.000,1.000,0.000,0.000,0.000,2.000,0.000,0.000,0.000,586328.094
524026.800,4778999.660,1515.220,10201.000,1.000,0.000,0.000,0.000,3.000,0.000,0.000,21.000,586328.094
524027.740,4778999.550,1515.400,7747.000,1.000,0.000,0.000,0.000,3.000,0.000,0.000,10.000,586328.094
524022.160,4778999.940,1514.090,8522.000,1.000,0.000,0.000,0.000,2.000,0.000,0.000,0.000,586328.087
524023.020,4778999.840,1514.220,9362.000,1.000,0.000,0.000,0.000,2.000,0.000,0.000,0.000,586328.087
524023.890,4778999.740,1514.390,9426.000,1.000,0.000,0.000,0.000,3.000,0.000,0.000,7.000,586328.087
524024.690,4778999.640,1514.710,10524.000,1.000,0.000,0.000,0.000,3.000,0.000,0.000,10.000,586328.087
524025.610,4778999.540,1514.730,7166.000,1.000,0.000,0.000,0.000,2.000,0.000,0.000,0.000,586328.087
524019.820,4778999.950,1513.590,9039.000,1.000,0.000,0.000,0.000,2.000,0.000,0.000,0.000,586328.080
524020.740,4778999.840,1513.800,8974.000,1.000,0.000,0.000,0.000,2.000,0.000,0.000,0.000,586328.080
524021.610,4778999.740,1514.000,9620.000,1.000,0.000,0.000,0.000,2.000,0.000,0.000,0.000,586328.080
524022.470,4778999.640,1514.110,9620.000,1.000,0.000,0.000,0.000,2.000,0.000,0.000,0.000,586328.080
524023.450,4778999.520,1514.230,9297.000,1.000,0.000,0.000,0.000,2.000,0.000,0.000,0.000,586328.080
524017.650,4778999.930,1513.050,11299.000,1.000,0.000,0.000,0.000,2.000,0.000,0.000,0.000,586328.073
524018.620,4778999.810,1513.190,8329.000,1.000,0.000,0.000,0.000,2.000,0.000,0.000,0.000,586328.073
524019.540,4778999.700,1513.380,7618.000,1.000,0.000,0.000,0.000,2.000,0.000,0.000,0.000,586328.073
524020.360,4778999.600,1513.730,6714.000,1.000,0.000,0.000,0.000,3.000,0.000,0.000,6.000,586328.073
524021.260,4778999.500,1513.900,10459.000,1.000,0.000,0.000,0.000,2.000,0.000,0.000,0.000,586328.073
524014.590,4778999.990,1512.420,11363.000,1.000,0.000,0.000,0.000,2.000,0.000,0.000,0.000,586328.066
524015.440,4778999.890,1512.590,8199.000,1.000,0.000,0.000,0.000,2.000,0.000,0.000,0.000,586328.066
524016.260,4778999.790,1512.830,9749.000,1.000,0.000,0.000,0.000,2.000,0.000,0.000,0.000,586328.066
524017.180,4778999.680,1513.040,10395.000,1.000,0.000,0.000,0.000,3.000,0.000,0.000,14.000,586328.066
524018.090,4778999.570,1513.120,12590.000,1.000,0.000,0.000,0.000,2.000,0.000,0.000,0.000,586328.066
524018.980,4778999.460,1513.360,9749.000,1.000,0.000,0.000,0.000,3.000,0.000,0.000,10.000,586328.066
524012.410,4778999.940,1511.890,11557.000,1.000,0.000,0.000,0.000,2.000,0.000,0.000,0.000,586328.059
524013.250,4778999.840,1512.050,10718.000,1.000,0.000,0.000,0.000,2.000,0.000,0.000,0.000,586328.059
524014.160,4778999.740,1512.240,9684.000,1.000,0.000,0.000,0.000,2.000,0.000,0.000,0.000,586328.059
524015.070,4778999.630,1512.530,7812.000,1.000,0.000,0.000,0.000,2.000,0.000,0.000,0.000,586328.059
524015.920,4778999.530,1512.690,8587.000,1.000,0.000,0.000,0.000,2.000,0.000,0.000,0.000,586328.059
524009.460,4778999.940,1511.190,8329.000,1.000,0.000,0.000,0.000,2.000,0.000,0.000,0.000,586328.052
524010.360,4778999.840,1511.450,10911.000,1.000,0.000,0.000,0.000,2.000,0.000,0.000,0.000,586328.052
524011.300,4778999.730,1511.590,9168.000,1.000,0.000,0.000,0.000,2.000,0.000,0.000,0.000,586328.052
524012.140,4778999.630,1511.800,9749.000,1.000,0.000,0.000,0.000,3.000,0.000,0.000,7.000,586328.052
524013.020,4778999.530,1511.950,9362.000,1.000,0.000,0.000,0.000,2.000,0.000,0.000,0.000,586328.052
524007.260,4778999.860,1510.680,8974.000,1.000,0.000,0.000,0.000,2.000,0.000,0.000,0.000,586328.045
524008.980,4778999.660,1511.130,7812.000,1.000,0.000,0.000,0.000,2.000,0.000,0.000,0.000,586328.045
524009.880,4778999.550,1511.370,10201.000,1.000,0.000,0.000,0.000,3.000,0.000,0.000,6.000,586328.045
524010.720,4778999.460,1511.520,9491.000,1.000,0.000,0.000,0.000,2.000,0.000,0.000,0.000,586328.045
524006.810,4778999.630,1510.550,9555.000,1.000,0.000,0.000,0.000,2.000,0.000,0.000,0.000,586328.038
524007.730,4778999.520,1510.780,7166.000,1.000,0.000,0.000,0.000,2.000,0.000,0.000,0.000,586328.038
524005.980,4778999.660,1510.340,8264.000,1.000,0.000,0.000,0.000,2.000,0.000,0.000,0.000,586565.529
524005.090,4778999.760,1510.360,10136.000,1.000,0.000,0.000,0.000,2.000,0.000,0.000,0.000,586565.536
524004.110,4778999.830,1509.950,8393.000,1.000,0.000,0.000,0.000,2.000,0.000,0.000,0.000,586565.543
524003.230,4778999.800,1509.650,9491.000,1.000,0.000,0.000,0.000,2.000,0.000,0.000,0.000,586565.550
524002.410,4778999.700,1509.480,7941.000,1.000,0.000,0.000,0.000,2.000,0.000,0.000,0.000,586565.557
524001.510,4778999.690,1509.340,10072.000,1.000,0.000,0.000,0.000,2.000,0.000,0.000,0.000,586565.564
524006.930,4778999.500,1510.560,9491.000,1.000,0.000,0.000,0.000,2.000,0.000,0.000,0.000,586565.522
524007.770,4778999.450,1510.750,7941.000,1.000,0.000,0.000,0.000,2.000,0.000,0.000,0.000,586565.514
524008.170,4778999.880,1510.930,9943.000,1.000,0.000,0.000,0.000,2.000,0.000,0.000,0.000,586565.507
524008.720,4778999.350,1510.970,9943.000,1.000,0.000,0.000,0.000,2.000,0.000,0.000,0.000,586565.507
524009.100,4778999.790,1511.070,8910.000,1.000,0.000,0.000,0.000,2.000,0.000,0.000,0.000,586565.500
524010.030,4778999.670,1511.300,10588.000,1.000,0.000,0.000,0.000,2.000,0.000,0.000,0.000,586565.493
524010.980,4778999.490,1511.490,9297.000,1.000,0.000,0.000,0.000,2.000,0.000,0.000,0.000,586565.486
524011.750,4778999.500,1511.660,8587.000,1.000,0.000,0.000,0.000,2.000,0.000,0.000,0.000,586565.479
524012.060,4778999.960,1511.700,8910.000,1.000,0.000,0.000,0.000,2.000,0.000,0.000,0.000,586565.472
524012.620,4778999.430,1511.830,7877.000,1.000,0.000,0.000,0.000,2.000,0.000,0.000,0.000,586565.472
524012.960,4778999.920,1511.920,9426.000,1.000,0.000,0.000,0.000,2.000,0.000,0.000,0.000,586565.465
524013.530,4778999.380,1512.020,7231.000,1.000,0.000,0.000,0.000,2.000,0.000,0.000,0.000,586565.465
524013.880,4778999.910,1512.110,9168.000,1.000,0.000,0.000,0.000,2.000,0.000,0.000,0.000,586565.458
524014.450,4778999.380,1512.240,9233.000,1.000,0.000,0.000,0.000,2.000,0.000,0.000,0.000,586565.458
524014.860,4778999.870,1512.410,9168.000,1.000,0.000,0.000,0.000,2.000,0.000,0.000,0.000,586565.451
524015.700,4778999.960,1512.620,8070.000,1.000,0.000,0.000,0.000,2.000,0.000,0.000,0.000,586565.444
524016.280,4778999.400,1512.680,9684.000,1.000,0.000,0.000,0.000,2.000,0.000,0.000,0.000,586565.444
524016.650,4778999.930,1512.730,10201.000,1.000,0.000,0.000,0.000,2.000,0.000,0.000,0.000,586565.437
524017.200,4778999.400,1512.850,10976.000,1.000,0.000,0.000,0.000,2.000,0.000,0.000,0.000,586565.437
524017.520,4778999.930,1512.960,10201.000,1.000,0.000,0.000,0.000,2.000,0.000,0.000,0.000,586565.430
524018.070,4778999.420,1513.270,8845.000,1.000,0.000,0.000,0.000,3.000,0.000,0.000,14.000,586565.430
524018.400,4778999.920,1513.100,9684.000,1.000,0.000,0.000,0.000,2.000,0.000,0.000,0.000,586565.423
524018.960,4778999.390,1513.250,8199.000,1.000,0.000,0.000,0.000,2.000,0.000,0.000,0.000,586565.423
524019.260,4778999.870,1513.270,9555.000,1.000,0.000,0.000,0.000,2.000,0.000,0.000,0.000,586565.416
524020.040,4778999.900,1513.670,8329.000,1.000,0.000,0.000,0.000,2.000,0.000,0.000,0.000,586565.409
524020.610,4778999.360,1513.690,7296.000,1.000,0.000,0.000,0.000,2.000,0.000,0.000,0.000,586565.409
524020.860,4778999.880,1513.710,9426.000,1.000,0.000,0.000,0.000,2.000,0.000,0.000,0.000,586565.402
524021.420,4778999.360,1513.840,10847.000,1.000,0.000,0.000,0.000,2.000,0.000,0.000,0.000,586565.402
524021.680,4778999.870,1513.930,10136.000,1.000,0.000,0.000,0.000,2.000,0.000,0.000,0.000,586565.395
524022.230,4778999.340,1513.980,8264.000,1.000,0.000,0.000,0.000,2.000,0.000,0.000,0.000,586565.395
524022.500,4778999.860,1514.030,10136.000,1.000,0.000,0.000,0.000,2.000,0.000,0.000,0.000,586565.387
524023.380,4778999.760,1514.200,8199.000,1.000,0.000,0.000,0.000,2.000,0.000,0.000,0.000,586565.380
524024.140,4778999.760,1514.420,7102.000,1.000,0.000,0.000,0.000,2.000,0.000,0.000,0.000,586565.373
524025.040,4778999.630,1514.620,10718.000,1.000,0.000,0.000,0.000,2.000,0.000,0.000,0.000,586565.366
524025.850,4778999.610,1514.780,10201.000,1.000,0.000,0.000,0.000,2.000,0.000,0.000,0.000,586565.359
524026.730,4778999.580,1515.250,8458.000,1.000,0.000,0.000,0.000,3.000,0.000,0.000,14.000,586565.352
524027.690,4778999.510,1515.270,7489.000,1.000,0.000,0.000,0.000,2.000,0.000,0.000,0.000,586565.345
524028.510,4778999.570,1515.400,9684.000,1.000,0.000,0.000,0.000,2.000,0.000,0.000,0.000,586565.338
524029.270,4778999.660,1515.550,10782.000,1.000,0.000,0.000,0.000,2.000,0.000,0.000,0.000,586565.331
524029.990,4778999.790,1515.700,9168.000,1.000,0.000,0.000,0.000,2.000,0.000,0.000,0.000,586565.324
524030.660,4778999.910,1515.830,10976.000,1.000,0.000,0.000,0.000,2.000,0.000,0.000,0.000,586565.317
524031.230,4778999.370,1515.890,9103.000,1.000,0.000,0.000,0.000,2.000,0.000,0.000,0.000,586565.317
524031.970,4778999.440,1516.740,10588.000,1.000,0.000,0.000,0.000,3.000,0.000,0.000,44.000,586565.310
524031.420,4778999.900,1515.950,8393.000,1.000,0.000,0.000,0.000,2.000,0.000,0.000,0.000,586565.310
524032.540,4778999.590,1516.940,9814.000,1.000,0.000,0.000,0.000,3.000,0.000,0.000,48.000,586565.303
524033.340,4778999.440,1516.580,9814.000,1.000,0.000,0.000,0.000,2.000,0.000,0.000,0.000,586565.296
524033.500,4778999.970,1516.530,8458.000,1.000,0.000,0.000,0.000,2.000,0.000,0.000,0.000,586565.289
524034.070,4778999.430,1516.570,8199.000,1.000,0.000,0.000,0.000,2.000,0.000,0.000,0.000,586565.289
524034.290,4778999.970,1516.630,8781.000,1.000,0.000,0.000,0.000,2.000,0.000,0.000,0.000,586565.282
524034.850,4778999.450,1516.760,8458.000,1.000,0.000,0.000,0.000,2.000,0.000,0.000,0.000,586565.282
524035.150,4778999.960,1516.820,7554.000,1.000,0.000,0.000,0.000,2.000,0.000,0.000,0.000,586565.275
524035.730,4778999.410,1516.990,8974.000,1.000,0.000,0.000,0.000,2.000,0.000,0.000,0.000,586565.275
524036.520,4778999.480,1517.040,9103.000,1.000,0.000,0.000,0.000,2.000,0.000,0.000,0.000,586565.268
524036.840,4778999.990,1517.040,9103.000,1.000,0.000,0.000,0.000,2.000,0.000,0.000,0.000,586565.260
524037.400,4778999.470,1517.210,9168.000,1.000,0.000,0.000,0.000,2.000,0.000,0.000,0.000,586565.260
524038.220,4778999.470,1517.350,10136.000,1.000,0.000,0.000,0.000,2.000,0.000,0.000,0.000,586565.253
524039.000,4778999.520,1517.480,9814.000,1.000,0.000,0.000,0.000,2.000,0.000,0.000,0.000,586565.246
524039.900,4778999.420,1517.630,9943.000,1.000,0.000,0.000,0.000,2.000,0.000,0.000,0.000,586565.239
524040.550,4778999.560,1517.760,9878.000,1.000,0.000,0.000,0.000,2.000,0.000,0.000,0.000,586565.232
524041.290,4778999.610,1517.860,8845.000,1.000,0.000,0.000,0.000,2.000,0.000,0.000,0.000,586565.225
524041.870,4778999.790,1518.000,8393.000,1.000,0.000,0.000,0.000,2.000,0.000,0.000,0.000,586565.218
524042.500,4778999.970,1518.120,9684.000,1.000,0.000,0.000,0.000,2.000,0.000,0.000,0.000,586565.211
524043.080,4778999.470,1518.770,8006.000,1.000,0.000,0.000,0.000,3.000,0.000,0.000,41.000,586565.211
524043.760,4778999.550,1518.550,9555.000,1.000,0.000,0.000,0.000,2.000,0.000,0.000,0.000,586565.204
524044.360,4778999.670,1518.660,9168.000,1.000,0.000,0.000,0.000,2.000,0.000,0.000,0.000,586565.197
524044.980,4778999.730,1518.750,8006.000,1.000,0.000,0.000,0.000,2.000,0.000,0.000,0.000,586565.190
524045.610,4778999.760,1518.850,8910.000,1.000,0.000,0.000,0.000,2.000,0.000,0.000,0.000,586565.183
524046.190,4778999.860,1518.970,10007.000,1.000,0.000,0.000,0.000,2.000,0.000,0.000,0.000,586565.176
524046.760,4778999.330,1519.100,10782.000,1.000,0.000,0.000,0.000,2.000,0.000,0.000,0.000,586565.176
524046.890,4778999.900,1519.140,9297.000,1.000,0.000,0.000,0.000,2.000,0.000,0.000,0.000,586565.169
524047.470,4778999.370,1519.330,10976.000,1.000,0.000,0.000,0.000,2.000,0.000,0.000,0.000,586565.169
524048.130,4778999.500,1519.430,9426.000,1.000,0.000,0.000,0.000,2.000,0.000,0.000,0.000,586565.162
524048.860,4778999.560,1519.660,10201.000,1.000,0.000,0.000,0.000,3.000,0.000,0.000,6.000,586565.155
524049.570,4778999.590,1519.600,11492.000,1.000,0.000,0.000,0.000,2.000,0.000,0.000,0.000,586565.148
524050.180,4778999.700,1519.630,9555.000,1.000,0.000,0.000,0.000,2.000,0.000,0.000,0.000,586565.140
524050.840,4778999.740,1519.700,11621.000,1.000,0.000,0.000,0.000,2.000,0.000,0.000,0.000,586565.133
524051.500,4778999.800,1519.950,10395.000,1.000,0.000,0.000,0.000,2.000,0.000,0.000,0.000,586565.126
524052.090,4778999.850,1519.990,10330.000,1.000,0.000,0.000,0.000,2.000,0.000,0.000,0.000,586565.119
524052.650,4778999.340,1520.130,10201.000,1.000,0.000,0.000,0.000,2.000,0.000,0.000,0.000,586565.119
524052.640,4778999.920,1520.230,10072.000,1.000,0.000,0.000,0.000,2.000,0.000,0.000,0.000,586565.112
524053.270,4778999.320,1520.230,11944.000,1.000,0.000,0.000,0.000,2.000,0.000,0.000,0.000,586565.112
524053.610,4778999.580,1520.250,10007.000,1.000,0.000,0.000,0.000,2.000,0.000,0.000,0.000,586565.105
524054.080,4778999.760,1520.390,8910.000,1.000,0.000,0.000,0.000,2.000,0.000,0.000,0.000,586565.098
524054.520,4778999.970,1520.450,10911.000,1.000,0.000,0.000,0.000,2.000,0.000,0.000,0.000,586565.091
524055.130,4778999.410,1520.630,10459.000,1.000,0.000,0.000,0.000,2.000,0.000,0.000,0.000,586565.091
524055.630,4778999.580,1520.680,10395.000,1.000,0.000,0.000,0.000,2.000,0.000,0.000,0.000,586565.084
524056.130,4778999.710,1520.730,9168.000,1.000,0.000,0.000,0.000,2.000,0.000,0.000,0.000,586565.077
524056.550,4778999.900,1520.960,10718.000,1.000,0.000,0.000,0.000,3.000,0.000,0.000,8.000,586565.070
524057.170,4778999.310,1520.910,11751.000,1.000,0.000,0.000,0.000,2.000,0.000,0.000,0.000,586565.070
524057.640,4778999.480,1520.930,8910.000,1.000,0.000,0.000,0.000,2.000,0.000,0.000,0.000,586565.063
524058.240,4778999.540,1521.020,11880.000,1.000,0.000,0.000,0.000,2.000,0.000,0.000,0.000,586565.056
524058.710,4778999.750,1521.050,11557.000,1.000,0.000,0.000,0.000,2.000,0.000,0.000,0.000,586565.049
524059.340,4778999.810,1521.190,12655.000,1.000,0.000,0.000,0.000,2.000,0.000,0.000,0.000,586565.042
524059.850,4778999.990,1521.240,12332.000,1.000,0.000,0.000,0.000,2.000,0.000,0.000,0.000,586565.035
524060.420,4778999.470,1521.320,9684.000,1.000,0.000,0.000,0.000,2.000,0.000,0.000,0.000,586565.035
524060.960,4778999.620,1521.380,13171.000,1.000,0.000,0.000,0.000,2.000,0.000,0.000,0.000,586565.028
524061.620,4778999.680,1521.490,9943.000,1.000,0.000,0.000,0.000,2.000,0.000,0.000,0.000,586565.021
524062.170,4778999.820,1521.590,9168.000,1.000,0.000,0.000,0.000,2.000,0.000,0.000,0.000,586565.013
524062.830,4778999.810,1521.630,11363.000,1.000,0.000,0.000,0.000,2.000,0.000,0.000,0.000,586565.006
524063.400,4778999.860,1521.710,9878.000,1.000,0.000,0.000,0.000,2.000,0.000,0.000,0.000,586564.999
524064.020,4778999.290,1521.820,11621.000,1.000,0.000,0.000,0.000,2.000,0.000,0.000,0.000,586564.999
524064.480,4778999.440,1521.820,9878.000,1.000,0.000,0.000,0.000,2.000,0.000,0.000,0.000,586564.992
524065.060,4778999.550,1521.940,9103.000,1.000,0.000,0.000,0.000,2.000,0.000,0.000,0.000,586564.985
524065.510,4778999.850,1522.090,8070.000,1.000,0.000,0.000,0.000,2.000,0.000,0.000,0.000,586564.978
524066.670,4778999.500,1522.150,10459.000,1.000,0.000,0.000,0.000,2.000,0.000,0.000,0.000,586564.971
524067.160,4778999.760,1522.230,11170.000,1.000,0.000,0.000,0.000,2.000,0.000,0.000,0.000,586564.964
524068.120,4778999.570,1522.610,12396.000,1.000,0.000,0.000,0.000,3.000,0.000,0.000,17.000,586564.957
524068.630,4778999.760,1522.420,11170.000,1.000,0.000,0.000,0.000,2.000,0.000,0.000,0.000,586564.950
524069.140,4778999.920,1522.420,9943.000,1.000,0.000,0.000,0.000,2.000,0.000,0.000,0.000,586564.943
524069.760,4778999.350,1522.590,10911.000,1.000,0.000,0.000,0.000,2.000,0.000,0.000,0.000,586564.943
524070.280,4778999.490,1522.620,9555.000,1.000,0.000,0.000,0.000,2.000,0.000,0.000,0.000,586564.936
524070.870,4778999.580,1522.640,11105.000,1.000,0.000,0.000,0.000,2.000,0.000,0.000,0.000,586564.929
524071.300,4778999.810,1522.770,9814.000,1.000,0.000,0.000,0.000,2.000,0.000,0.000,0.000,586564.922
524072.360,4778999.460,1522.840,8716.000,1.000,0.000,0.000,0.000,2.000,0.000,0.000,0.000,586564.915
524072.870,4778999.650,1522.860,9684.000,1.000,0.000,0.000,0.000,2.000,0.000,0.000,0.000,586564.908
524073.290,4778999.910,1522.890,10136.000,1.000,0.000,0.000,0.000,2.000,0.000,0.000,0.000,586564.901
524073.870,4778999.380,1523.000,10782.000,1.000,0.000,0.000,0.000,2.000,0.000,0.000,0.000,586564.901
524074.380,4778999.510,1523.030,9620.000,1.000,0.000,0.000,0.000,2.000,0.000,0.000,0.000,586564.894
524074.830,4778999.670,1523.040,8393.000,1.000,0.000,0.000,0.000,2.000,0.000,0.000,0.000,586564.886
524075.210,4778999.840,1523.060,9749.000,1.000,0.000,0.000,0.000,2.000,0.000,0.000,0.000,586564.879
524075.760,4778999.910,1523.110,11557.000,1.000,0.000,0.000,0.000,2.000,0.000,0.000,0.000,586564.872
524076.330,4778999.400,1523.270,11880.000,1.000,0.000,0.000,0.000,2.000,0.000,0.000,0.000,586564.872
524076.780,4778999.650,1523.260,9943.000,1.000,0.000,0.000,0.000,2.000,0.000,0.000,0.000,586564.865
524077.310,4778999.860,1523.310,9168.000,1.000,0.000,0.000,0.000,2.000,0.000,0.000,0.000,586564.858
524077.930,4778999.290,1523.330,10136.000,1.000,0.000,0.000,0.000,2.000,0.000,0.000,0.000,586564.858
524078.410,4778999.520,1523.350,9426.000,1.000,0.000,0.000,0.000,2.000,0.000,0.000,0.000,586564.851
524078.820,4778999.810,1523.410,9426.000,1.000,0.000,0.000,0.000,2.000,0.000,0.000,0.000,586564.844
524079.400,4778999.290,1523.560,11492.000,1.000,0.000,0.000,0.000,2.000,0.000,0.000,0.000,586564.844
524079.880,4778999.540,1523.560,10136.000,1.000,0.000,0.000,0.000,2.000,0.000,0.000,0.000,586564.837
524080.360,4778999.780,1523.730,9426.000,1.000,0.000,0.000,0.000,2.000,0.000,0.000,0.000,586564.830
524081.460,4778999.440,1523.790,8845.000,1.000,0.000,0.000,0.000,2.000,0.000,0.000,0.000,586564.823
524082.020,4778999.570,1523.790,9491.000,1.000,0.000,0.000,0.000,2.000,0.000,0.000,0.000,586564.816
524082.470,4778999.830,1523.880,9168.000,1.000,0.000,0.000,0.000,3.000,0.000,0.000,7.000,586564.809
524083.660,4778999.430,1523.890,9943.000,1.000,0.000,0.000,0.000,2.000,0.000,0.000,0.000,586564.802
524084.240,4778999.700,1523.950,9684.000,1.000,0.000,0.000,0.000,2.000,0.000,0.000,0.000,586564.795
524085.410,4778999.480,1524.080,9814.000,1.000,0.000,0.000,0.000,2.000,0.000,0.000,0.000,586564.788
524086.540,4778999.990,1524.110,10395.000,1.000,0.000,0.000,0.000,2.000,0.000,0.000,0.000,586564.774
524087.170,4778999.420,1524.310,11686.000,1.000,0.000,0.000,0.000,2.000,0.000,0.000,0.000,586564.774
524086.020,4778999.720,1524.070,9620.000,1.000,0.000,0.000,0.000,2.000,0.000,0.000,0.000,586564.781
524087.620,4778999.690,1524.270,10459.000,1.000,0.000,0.000,0.000,2.000,0.000,0.000,0.000,586564.767
524088.230,4778999.830,1524.250,11751.000,1.000,0.000,0.000,0.000,2.000,0.000,0.000,0.000,586564.759
524088.790,4778999.330,1524.480,10459.000,1.000,0.000,0.000,0.000,2.000,0.000,0.000,0.000,586564.759
524089.400,4778999.510,1524.430,10782.000,1.000,0.000,0.000,0.000,2.000,0.000,0.000,0.000,586564.752
524090.050,4778999.670,1524.520,10782.000,1.000,0.000,0.000,0.000,2.000,0.000,0.000,0.000,586564.745
524090.680,4778999.840,1524.600,10459.000,1.000,0.000,0.000,0.000,2.000,0.000,0.000,0.000,586564.738
524091.290,4778999.280,1524.700,10976.000,1.000,0.000,0.000,0.000,2.000,0.000,0.000,0.000,586564.738
524091.830,4778999.560,1524.700,12267.000,1.000,0.000,0.000,0.000,2.000,0.000,0.000,0.000,586564.731
524092.510,4778999.770,1524.730,10136.000,1.000,0.000,0.000,0.000,2.000,0.000,0.000,0.000,586564.724
524093.230,4778999.940,1524.910,9233.000,1.000,0.000,0.000,0.000,2.000,0.000,0.000,0.000,586564.717
524093.860,4778999.360,1524.980,11557.000,1.000,0.000,0.000,0.000,2.000,0.000,0.000,0.000,586564.717
524094.590,4778999.570,1525.020,9943.000,1.000,0.000,0.000,0.000,2.000,0.000,0.000,0.000,586564.710
524096.060,4778999.970,1525.120,10395.000,1.000,0.000,0.000,0.000,2.000,0.000,0.000,0.000,586564.696
524095.420,4778999.660,1525.090,10653.000,1.000,0.000,0.000,0.000,2.000,0.000,0.000,0.000,586564.703
524097.390,4778999.670,1525.240,9103.000,1.000,0.000,0.000,0.000,2.000,0.000,0.000,0.000,586564.689
524096.690,4778999.400,1525.220,9491.000,1.000,0.000,0.000,0.000,2.000,0.000,0.000,0.000,586564.696
524098.050,4778999.950,1525.280,10266.000,1.000,0.000,0.000,0.000,2.000,0.000,0.000,0.000,586564.682
524098.660,4778999.410,1525.420,10976.000,1.000,0.000,0.000,0.000,2.000,0.000,0.000,0.000,586564.682
524099.220,4778999.760,1525.410,10395.000,1.000,0.000,0.000,0.000,2.000,0.000,0.000,0.000,586564.675
524100.430,4778999.520,1525.630,11170.000,1.000,0.000,0.000,0.000,2.000,0.000,0.000,0.000,586564.668
524101.090,4778999.660,1525.590,8845.000,1.000,0.000,0.000,0.000,2.000,0.000,0.000,0.000,586564.661
524101.660,4778999.860,1525.600,9814.000,1.000,0.000,0.000,0.000,2.000,0.000,0.000,0.000,586564.654
524102.230,4778999.350,1525.800,10007.000,1.000,0.000,0.000,0.000,2.000,0.000,0.000,0.000,586564.654
524102.370,4778999.990,1525.670,9297.000,1.000,0.000,0.000,0.000,2.000,0.000,0.000,0.000,586564.647
524102.930,4778999.490,1525.870,10266.000,1.000,0.000,0.000,0.000,2.000,0.000,0.000,0.000,586564.647
524103.590,4778999.650,1525.890,10911.000,1.000,0.000,0.000,0.000,2.000,0.000,0.000,0.000,586564.640
524104.310,4778999.770,1525.940,9168.000,1.000,0.000,0.000,0.000,2.000,0.000,0.000,0.000,586564.632
524106.340,4778999.560,1526.230,11170.000,1.000,0.000,0.000,0.000,2.000,0.000,0.000,0.000,586564.618
524105.070,4778999.890,1525.970,8587.000,1.000,0.000,0.000,0.000,2.000,0.000,0.000,0.000,586564.625
524105.660,4778999.360,1526.140,8974.000,1.000,0.000,0.000,0.000,2.000,0.000,0.000,0.000,586564.625
524107.100,4778999.680,1526.300,10266.000,1.000,0.000,0.000,0.000,2.000,0.000,0.000,0.000,586564.611
524107.850,4778999.820,1526.330,9943.000,1.000,0.000,0.000,0.000,2.000,0.000,0.000,0.000,586564.604
524108.480,4778999.270,1526.520,9814.000,1.000,0.000,0.000,0.000,2.000,0.000,0.000,0.000,586564.604
524108.600,4778999.970,1526.310,9749.000,1.000,0.000,0.000,0.000,2.000,0.000,0.000,0.000,586564.597
524109.200,4778999.430,1526.490,10653.000,1.000,0.000,0.000,0.000,2.000,0.000,0.000,0.000,586564.597
524110.880,4778999.660,1526.600,9168.000,1.000,0.000,0.000,0.000,2.000,0.000,0.000,0.000,586564.583
524109.540,4778999.980,1526.370,9684.000,1.000,0.000,0.000,0.000,2.000,0.000,0.000,0.000,586564.590
524110.110,4778999.470,1526.590,12009.000,1.000,0.000,0.000,0.000,2.000,0.000,0.000,0.000,586564.590
524111.690,4778999.790,1526.660,11363.000,1.000,0.000,0.000,0.000,2.000,0.000,0.000,0.000,586564.576
524113.670,4778999.630,1526.830,10782.000,1.000,0.000,0.000,0.000,2.000,0.000,0.000,0.000,586564.562
524112.430,4778999.950,1526.730,10588.000,1.000,0.000,0.000,0.000,2.000,0.000,0.000,0.000,586564.569
524113.030,4778999.410,1526.870,9943.000,1.000,0.000,0.000,0.000,2.000,0.000,0.000,0.000,586564.569
524114.370,4778999.820,1526.810,10588.000,1.000,0.000,0.000,0.000,2.000,0.000,0.000,0.000,586564.555
524114.950,4778999.300,1526.910,11880.000,1.000,0.000,0.000,0.000,2.000,0.000,0.000,0.000,586564.555
524115.710,4778999.490,1526.900,9555.000,1.000,0.000,0.000,0.000,2.000,0.000,0.000,0.000,586564.548
524117.320,4778999.840,1526.890,8910.000,1.000,0.000,0.000,0.000,2.000,0.000,0.000,0.000,586564.534
524117.900,4778999.310,1526.950,9168.000,1.000,0.000,0.000,0.000,2.000,0.000,0.000,0.000,586564.534
524116.460,4778999.720,1526.900,9943.000,1.000,0.000,0.000,0.000,2.000,0.000,0.000,0.000,586564.541
524118.510,4778999.590,1527.020,10201.000,1.000,0.000,0.000,0.000,3.000,0.000,0.000,4.000,586564.527
524119.950,4778999.760,1526.970,9620.000,1.000,0.000,0.000,0.000,2.000,0.000,0.000,0.000,586564.513
524119.230,4778999.690,1527.000,9943.000,1.000,0.000,0.000,0.000,2.000,0.000,0.000,0.000,586564.520
524121.560,4778999.900,1526.960,10395.000,1.000,0.000,0.000,0.000,2.000,0.000,0.000,0.000,586564.498
524122.120,4778999.410,1527.160,10459.000,1.000,0.000,0.000,0.000,3.000,0.000,0.000,9.000,586564.498
524120.710,4778999.830,1526.980,10072.000,1.000,0.000,0.000,0.000,2.000,0.000,0.000,0.000,586564.505
524121.310,4778999.300,1527.050,9168.000,1.000,0.000,0.000,0.000,2.000,0.000,0.000,0.000,586564.505
524122.990,4778999.520,1527.080,9491.000,1.000,0.000,0.000,0.000,2.000,0.000,0.000,0.000,586564.491
524124.740,4778999.820,1527.090,11105.000,1.000,0.000,0.000,0.000,2.000,0.000,0.000,0.000,586564.477
524123.830,4778999.710,1527.090,9491.000,1.000,0.000,0.000,0.000,2.000,0.000,0.000,0.000,586564.484
524128.280,4778999.340,1527.190,10911.000,1.000,0.000,0.000,0.000,2.000,0.000,0.000,0.000,586564.456
524126.910,4778999.650,1527.150,9555.000,1.000,0.000,0.000,0.000,2.000,0.000,0.000,0.000,586564.463
524126.070,4778999.520,1527.090,8974.000,1.000,0.000,0.000,0.000,2.000,0.000,0.000,0.000,586564.470
524128.980,4778999.610,1527.200,11170.000,1.000,0.000,0.000,0.000,2.000,0.000,0.000,0.000,586564.449
524127.630,4778999.920,1527.100,10976.000,1.000,0.000,0.000,0.000,2.000,0.000,0.000,0.000,586564.456
524131.900,4778999.670,1527.210,10653.000,1.000,0.000,0.000,0.000,2.000,0.000,0.000,0.000,586564.428
524130.770,4778999.800,1527.170,11751.000,1.000,0.000,0.000,0.000,2.000,0.000,0.000,0.000,586564.435
524131.370,4778999.260,1527.260,11170.000,1.000,0.000,0.000,0.000,2.000,0.000,0.000,0.000,586564.435
524129.590,4778999.950,1527.150,11880.000,1.000,0.000,0.000,0.000,2.000,0.000,0.000,0.000,586564.442
524130.170,4778999.430,1527.250,10911.000,1.000,0.000,0.000,0.000,2.000,0.000,0.000,0.000,586564.442
524134.990,4778999.460,1527.270,11428.000,1.000,0.000,0.000,0.000,2.000,0.000,0.000,0.000,586564.407
524133.750,4778999.770,1527.230,10395.000,1.000,0.000,0.000,0.000,2.000,0.000,0.000,0.000,586564.414
524132.640,4778999.910,1527.190,11105.000,1.000,0.000,0.000,0.000,2.000,0.000,0.000,0.000,586564.421
524133.220,4778999.390,1527.260,10588.000,1.000,0.000,0.000,0.000,2.000,0.000,0.000,0.000,586564.421
524136.050,4778999.930,1527.340,8974.000,1.000,0.000,0.000,0.000,2.000,0.000,0.000,0.000,586564.393
524136.660,4778999.380,1527.310,11751.000,1.000,0.000,0.000,0.000,2.000,0.000,0.000,0.000,586564.393
524135.530,4778999.700,1527.290,11428.000,1.000,0.000,0.000,0.000,2.000,0.000,0.000,0.000,586564.400
524137.320,4778999.550,1527.310,10007.000,1.000,0.000,0.000,0.000,2.000,0.000,0.000,0.000,586564.386
524138.010,4778999.700,1527.300,10459.000,1.000,0.000,0.000,0.000,2.000,0.000,0.000,0.000,586564.378
524138.660,4778999.910,1527.320,9555.000,1.000,0.000,0.000,0.000,2.000,0.000,0.000,0.000,586564.371
524139.270,4778999.350,1527.360,11105.000,1.000,0.000,0.000,0.000,2.000,0.000,0.000,0.000,586564.371
524139.980,4778999.520,1527.300,12009.000,1.000,0.000,0.000,0.000,2.000,0.000,0.000,0.000,586564.364
524140.480,4778999.890,1527.260,10201.000,1.000,0.000,0.000,0.000,2.000,0.000,0.000,0.000,586564.357
524141.120,4778999.320,1527.330,11751.000,1.000,0.000,0.000,0.000,2.000,0.000,0.000,0.000,586564.357
524141.760,4778999.640,1527.310,10653.000,1.000,0.000,0.000,0.000,2.000,0.000,0.000,0.000,586564.350
524142.360,4778999.990,1527.220,11686.000,1.000,0.000,0.000,0.000,2.000,0.000,0.000,0.000,586564.343
524143.030,4778999.380,1527.270,11751.000,1.000,0.000,0.000,0.000,2.000,0.000,0.000,0.000,586564.343
524143.510,4778999.770,1527.240,10588.000,1.000,0.000,0.000,0.000,2.000,0.000,0.000,0.000,586564.336
524144.670,4778999.500,1527.270,10782.000,1.000,0.000,0.000,0.000,2.000,0.000,0.000,0.000,586564.329
524145.260,4778999.720,1527.210,10201.000,1.000,0.000,0.000,0.000,2.000,0.000,0.000,0.000,586564.322
524146.340,4778999.540,1527.220,11234.000,1.000,0.000,0.000,0.000,2.000,0.000,0.000,0.000,586564.315
524147.000,4778999.800,1527.110,12138.000,1.000,0.000,0.000,0.000,2.000,0.000,0.000,0.000,586564.308
524147.590,4778999.270,1527.170,10588.000,1.000,0.000,0.000,0.000,2.000,0.000,0.000,0.000,586564.308
524148.090,4778999.630,1527.130,10588.000,1.000,0.000,0.000,0.000,2.000,0.000,0.000,0.000,586564.301
524148.600,4778999.940,1527.080,11170.000,1.000,0.000,0.000,0.000,2.000,0.000,0.000,0.000,586564.294
524149.230,4778999.380,1527.110,11105.000,1.000,0.000,0.000,0.000,2.000,0.000,0.000,0.000,586564.294
524149.660,4778999.690,1527.110,10136.000,1.000,0.000,0.000,0.000,3.000,0.000,0.000,0.000,586564.287
524150.080,4778999.990,1527.000,11944.000,1.000,0.000,0.000,0.000,2.000,0.000,0.000,0.000,586564.280
524150.730,4778999.410,1527.060,10976.000,1.000,0.000,0.000,0.000,2.000,0.000,0.000,0.000,586564.280
524151.200,4778999.700,1527.030,11944.000,1.000,0.000,0.000,0.000,2.000,0.000,0.000,0.000,586564.273
524151.870,4778999.840,1527.030,11428.000,1.000,0.000,0.000,0.000,2.000,0.000,0.000,0.000,586564.266
524152.530,4778999.250,1527.080,13042.000,1.000,0.000,0.000,0.000,2.000,0.000,0.000,0.000,586564.266
524153.730,4778999.760,1526.970,11170.000,1.000,0.000,0.000,0.000,2.000,0.000,0.000,0.000,586564.251
524153.020,4778999.590,1527.000,11557.000,1.000,0.000,0.000,0.000,2.000,0.000,0.000,0.000,586564.259
524154.930,4778999.500,1526.960,12784.000,1.000,0.000,0.000,0.000,2.000,0.000,0.000,0.000,586564.244
524155.540,4778999.800,1526.910,11299.000,1.000,0.000,0.000,0.000,2.000,0.000,0.000,0.000,586564.237
524156.100,4778999.310,1527.120,11299.000,1.000,0.000,0.000,0.000,3.000,0.000,0.000,13.000,586564.237
524156.740,4778999.570,1526.890,10653.000,1.000,0.000,0.000,0.000,2.000,0.000,0.000,0.000,586564.230
524157.360,4778999.870,1526.890,11363.000,1.000,0.000,0.000,0.000,2.000,0.000,0.000,0.000,586564.223
524157.960,4778999.330,1526.840,10976.000,1.000,0.000,0.000,0.000,2.000,0.000,0.000,0.000,586564.223
524158.490,4778999.640,1526.730,13623.000,1.000,0.000,0.000,0.000,2.000,0.000,0.000,0.000,586564.216
524159.110,4778999.840,1526.640,11621.000,1.000,0.000,0.000,0.000,2.000,0.000,0.000,0.000,586564.209
524159.680,4778999.350,1526.840,9233.000,1.000,0.000,0.000,0.000,3.000,0.000,0.000,7.000,586564.209
524160.060,4778999.750,1526.700,11621.000,1.000,0.000,0.000,0.000,2.000,0.000,0.000,0.000,586564.202
524161.230,4778999.480,1526.690,11234.000,1.000,0.000,0.000,0.000,2.000,0.000,0.000,0.000,586564.195
524161.790,4778999.740,1526.600,13817.000,1.000,0.000,0.000,0.000,2.000,0.000,0.000,0.000,586564.188
524162.940,4778999.500,1526.650,10911.000,1.000,0.000,0.000,0.000,2.000,0.000,0.000,0.000,586564.181
524163.540,4778999.720,1526.560,11880.000,1.000,0.000,0.000,0.000,2.000,0.000,0.000,0.000,586564.174
524164.200,4778999.880,1526.520,10524.000,1.000,0.000,0.000,0.000,2.000,0.000,0.000,0.000,586564.167
524164.840,4778999.320,1526.640,8845.000,1.000,0.000,0.000,0.000,3.000,0.000,0.000,4.000,586564.167
524165.510,4778999.530,1526.510,10266.000,1.000,0.000,0.000,0.000,2.000,0.000,0.000,0.000,586564.160
524166.310,4778999.630,1526.370,12525.000,1.000,0.000,0.000,0.000,2.000,0.000,0.000,0.000,586564.153
524166.890,4778999.930,1526.330,12332.000,1.000,0.000,0.000,0.000,2.000,0.000,0.000,0.000,586564.146
524167.570,4778999.330,1526.340,11105.000,1.000,0.000,0.000,0.000,2.000,0.000,0.000,0.000,586564.146
524168.190,4778999.590,1526.410,9233.000,1.000,0.000,0.000,0.000,2.000,0.000,0.000,0.000,586564.139
524168.760,4778999.900,1526.790,8135.000,1.000,0.000,0.000,0.000,3.000,0.000,0.000,45.000,586564.132
524170.050,4778999.500,1526.120,10847.000,1.000,0.000,0.000,0.000,3.000,0.000,0.000,5.000,586564.124
524170.710,4778999.740,1525.990,12203.000,1.000,0.000,0.000,0.000,2.000,0.000,0.000,0.000,586564.117
524171.420,4778999.930,1525.890,7877.000,2.000,0.000,0.000,0.000,2.000,0.000,0.000,0.000,586564.110
524172.070,4778999.350,1525.900,12396.000,1.000,0.000,0.000,0.000,2.000,0.000,0.000,0.000,586564.110
524172.680,4778999.620,1525.820,12009.000,1.000,0.000,0.000,0.000,2.000,0.000,0.000,0.000,586564.103
524173.350,4778999.810,1525.780,11299.000,1.000,0.000,0.000,0.000,2.000,0.000,0.000,0.000,586564.096
524173.920,4778999.310,1525.890,10136.000,1.000,0.000,0.000,0.000,3.000,0.000,0.000,8.000,586564.096
524174.510,4778999.550,1525.750,11299.000,1.000,0.000,0.000,0.000,2.000,0.000,0.000,0.000,586564.089
524175.170,4778999.760,1525.640,13171.000,1.000,0.000,0.000,0.000,2.000,0.000,0.000,0.000,586564.082
524175.760,4778999.250,1525.770,10718.000,1.000,0.000,0.000,0.000,2.000,0.000,0.000,0.000,586564.082
524175.820,4778999.950,1525.760,9168.000,1.000,0.000,0.000,0.000,2.000,0.000,0.000,0.000,586564.075
524176.490,4778999.350,1525.640,12396.000,1.000,0.000,0.000,0.000,2.000,0.000,0.000,0.000,586564.075
524177.060,4778999.570,1525.530,14075.000,1.000,0.000,0.000,0.000,2.000,0.000,0.000,0.000,586564.068
524177.700,4778999.750,1525.430,12784.000,1.000,0.000,0.000,0.000,2.000,0.000,0.000,0.000,586564.061
524178.310,4778999.960,1525.480,9943.000,1.000,0.000,0.000,0.000,2.000,0.000,0.000,0.000,586564.054
524178.930,4778999.440,1525.800,9426.000,1.000,0.000,0.000,0.000,3.000,0.000,0.000,10.000,586564.054
524179.560,4778999.630,1525.620,10007.000,1.000,0.000,0.000,0.000,3.000,0.000,0.000,7.000,586564.047
524180.300,4778999.780,1525.490,12913.000,1.000,0.000,0.000,0.000,2.000,0.000,0.000,0.000,586564.040
524180.890,4778999.250,1525.560,12719.000,1.000,0.000,0.000,0.000,2.000,0.000,0.000,0.000,586564.040
524181.500,4778999.490,1525.740,8587.000,1.000,0.000,0.000,0.000,3.000,0.000,0.000,10.000,586564.033
524182.220,4778999.640,1525.630,11944.000,1.000,0.000,0.000,0.000,2.000,0.000,0.000,0.000,586564.026
524182.910,4778999.830,1525.800,8587.000,1.000,0.000,0.000,0.000,3.000,0.000,0.000,16.000,586564.019
524183.440,4778999.420,1526.610,7877.000,1.000,0.000,0.000,0.000,3.000,0.000,0.000,88.000,586564.019
524183.620,4778999.970,1525.610,13881.000,1.000,0.000,0.000,0.000,2.000,0.000,0.000,0.000,586564.012
524184.180,4778999.480,1525.770,13042.000,1.000,0.000,0.000,0.000,2.000,0.000,0.000,0.000,586564.012
524184.830,4778999.720,1526.180,8781.000,1.000,0.000,0.000,0.000,2.000,0.000,0.000,0.000,586564.005
524185.350,4778999.300,1526.700,3873.000,1.000,0.000,0.000,0.000,3.000,0.000,0.000,75.000,586564.005
524185.550,4778999.830,1525.910,13365.000,1.000,0.000,0.000,0.000,2.000,0.000,0.000,0.000,586563.997
524186.050,4778999.460,1526.930,1807.000,1.000,0.000,0.000,0.000,3.000,0.000,0.000,92.000,586563.997
524186.180,4778999.290,1526.110,11557.000,2.000,0.000,0.000,0.000,3.000,0.000,0.000,7.000,586563.997
524186.700,4778999.570,1526.470,7231.000,1.000,0.000,0.000,0.000,3.000,0.000,0.000,45.000,586563.990
524187.360,4778999.780,1526.630,7618.000,1.000,0.000,0.000,0.000,3.000,0.000,0.000,24.000,586563.983
524188.640,4778999.430,1526.230,11557.000,1.000,0.000,0.000,0.000,2.000,0.000,0.000,0.000,586563.976
524188.010,4778999.990,1526.180,10782.000,1.000,0.000,0.000,0.000,2.000,0.000,0.000,0.000,586563.976
524189.300,4778999.610,1526.300,12009.000,1.000,0.000,0.000,0.000,2.000,0.000,0.000,0.000,586563.969
524189.970,4778999.810,1526.470,12719.000,1.000,0.000,0.000,0.000,2.000,0.000,0.000,0.000,586563.962
524190.590,4778999.270,1526.730,12267.000,1.000,0.000,0.000,0.000,3.000,0.000,0.000,5.000,586563.962
524190.570,4778999.970,1526.490,10976.000,1.000,0.000,0.000,0.000,2.000,0.000,0.000,0.000,586563.955
524191.100,4778999.530,1526.910,9103.000,1.000,0.000,0.000,0.000,3.000,0.000,0.000,16.000,586563.955
524191.770,4778999.620,1526.780,11428.000,1.000,0.000,0.000,0.000,2.000,0.000,0.000,0.000,586563.948
524192.420,4778999.760,1526.940,11621.000,1.000,0.000,0.000,0.000,3.000,0.000,0.000,13.000,586563.941
524193.130,4778999.870,1526.800,12590.000,1.000,0.000,0.000,0.000,2.000,0.000,0.000,0.000,586563.934
524193.760,4778999.320,1526.960,10653.000,1.000,0.000,0.000,0.000,2.000,0.000,0.000,0.000,586563.934
524193.990,4778999.900,1526.960,11557.000,1.000,0.000,0.000,0.000,2.000,0.000,0.000,0.000,586563.927
524194.570,4778999.390,1527.110,10136.000,1.000,0.000,0.000,0.000,2.000,0.000,0.000,0.000,586563.927
524195.220,4778999.650,1527.240,11363.000,1.000,0.000,0.000,0.000,2.000,0.000,0.000,0.000,586563.920
524195.930,4778999.830,1527.420,9426.000,1.000,0.000,0.000,0.000,2.000,0.000,0.000,0.000,586563.913
524196.580,4778999.270,1527.610,9684.000,1.000,0.000,0.000,0.000,2.000,0.000,0.000,0.000,586563.913
524197.290,4778999.470,1527.700,10976.000,1.000,0.000,0.000,0.000,2.000,0.000,0.000,0.000,586563.906
524197.910,4778999.710,1527.830,8716.000,1.000,0.000,0.000,0.000,3.000,0.000,0.000,6.000,586563.899
524198.610,4778999.890,1527.850,11621.000,1.000,0.000,0.000,0.000,2.000,0.000,0.000,0.000,586563.892
524199.170,4778999.400,1528.070,9684.000,1.000,0.000,0.000,0.000,2.000,0.000,0.000,0.000,586563.892
524199.890,4778999.540,1528.120,11234.000,1.000,0.000,0.000,0.000,2.000,0.000,0.000,0.000,586563.885
524200.530,4778999.740,1528.190,9943.000,1.000,0.000,0.000,0.000,2.000,0.000,0.000,0.000,586563.878
524201.300,4778999.870,1528.390,10588.000,1.000,0.000,0.000,0.000,2.000,0.000,0.000,0.000,586563.870
524201.900,4778999.330,1528.490,10266.000,1.000,0.000,0.000,0.000,2.000,0.000,0.000,0.000,586563.870
524202.480,4778999.640,1528.560,9749.000,1.000,0.000,0.000,0.000,2.000,0.000,0.000,0.000,586563.863
524203.160,4778999.820,1528.610,9103.000,1.000,0.000,0.000,0.000,2.000,0.000,0.000,0.000,586563.856
524203.800,4778999.260,1528.820,10136.000,1.000,0.000,0.000,0.000,2.000,0.000,0.000,0.000,586563.856
524203.860,4778999.930,1528.700,9749.000,1.000,0.000,0.000,0.000,2.000,0.000,0.000,0.000,586563.849
524204.470,4778999.410,1529.030,10524.000,1.000,0.000,0.000,0.000,3.000,0.000,0.000,14.000,586563.849
524205.120,4778999.560,1529.050,10459.000,1.000,0.000,0.000,0.000,2.000,0.000,0.000,0.000,586563.842
524205.880,4778999.580,1529.120,9555.000,1.000,0.000,0.000,0.000,2.000,0.000,0.000,0.000,586563.835
524206.690,4778999.610,1529.230,10201.000,1.000,0.000,0.000,0.000,2.000,0.000,0.000,0.000,586563.828
524207.510,4778999.690,1529.310,8264.000,1.000,0.000,0.000,0.000,2.000,0.000,0.000,0.000,586563.821
524208.400,4778999.690,1529.310,8974.000,1.000,0.000,0.000,0.000,2.000,0.000,0.000,0.000,586563.814
524209.050,4778999.900,1529.330,10007.000,1.000,0.000,0.000,0.000,2.000,0.000,0.000,0.000,586563.807
524209.660,4778999.370,1529.460,8845.000,1.000,0.000,0.000,0.000,2.000,0.000,0.000,0.000,586563.807
524209.840,4778999.990,1529.460,11557.000,1.000,0.000,0.000,0.000,2.000,0.000,0.000,0.000,586563.800
524210.440,4778999.460,1529.540,10459.000,1.000,0.000,0.000,0.000,2.000,0.000,0.000,0.000,586563.800
524211.090,4778999.620,1529.640,10588.000,1.000,0.000,0.000,0.000,2.000,0.000,0.000,0.000,586563.793
524211.800,4778999.740,1529.780,10718.000,1.000,0.000,0.000,0.000,2.000,0.000,0.000,0.000,586563.786
524212.520,4778999.860,1529.960,9555.000,1.000,0.000,0.000,0.000,2.000,0.000,0.000,0.000,586563.779
524213.120,4778999.330,1530.050,8974.000,1.000,0.000,0.000,0.000,2.000,0.000,0.000,0.000,586563.779
524213.710,4778999.520,1530.120,10976.000,1.000,0.000,0.000,0.000,2.000,0.000,0.000,0.000,586563.772
524214.270,4778999.770,1530.120,10459.000,1.000,0.000,0.000,0.000,2.000,0.000,0.000,0.000,586563.765
524214.950,4778999.950,1530.210,11299.000,1.000,0.000,0.000,0.000,2.000,0.000,0.000,0.000,586563.758
524215.580,4778999.390,1530.410,10653.000,1.000,0.000,0.000,0.000,2.000,0.000,0.000,0.000,586563.758
524216.090,4778999.730,1530.430,10782.000,1.000,0.000,0.000,0.000,2.000,0.000,0.000,0.000,586563.751
524216.810,4778999.850,1530.560,11944.000,1.000,0.000,0.000,0.000,2.000,0.000,0.000,0.000,586563.743
524217.350,4778999.400,1531.030,9749.000,1.000,0.000,0.000,0.000,3.000,0.000,0.000,25.000,586563.743
524217.970,4778999.590,1531.000,9555.000,1.000,0.000,0.000,0.000,3.000,0.000,0.000,9.000,586563.736
524218.570,4778999.790,1531.250,8458.000,1.000,0.000,0.000,0.000,3.000,0.000,0.000,22.000,586563.729
524219.280,4778999.830,1530.850,10201.000,1.000,0.000,0.000,0.000,2.000,0.000,0.000,0.000,586563.722
524219.870,4778999.320,1531.090,9814.000,1.000,0.000,0.000,0.000,3.000,0.000,0.000,4.000,586563.722
524220.440,4778999.580,1531.120,8329.000,1.000,0.000,0.000,0.000,2.000,0.000,0.000,0.000,586563.715
524221.050,4778999.800,1531.060,9426.000,1.000,0.000,0.000,0.000,2.000,0.000,0.000,0.000,586563.708
524221.690,4778999.240,1531.200,11105.000,1.000,0.000,0.000,0.000,2.000,0.000,0.000,0.000,586563.708
524221.750,4778999.930,1531.100,10136.000,1.000,0.000,0.000,0.000,2.000,0.000,0.000,0.000,586563.701
524222.380,4778999.380,1531.260,9233.000,1.000,0.000,0.000,0.000,2.000,0.000,0.000,0.000,586563.701
524222.890,4778999.670,1531.360,10136.000,1.000,0.000,0.000,0.000,2.000,0.000,0.000,0.000,586563.694
524223.540,4778999.830,1531.500,10136.000,1.000,0.000,0.000,0.000,2.000,0.000,0.000,0.000,586563.687
524224.140,4778999.290,1531.530,8458.000,1.000,0.000,0.000,0.000,2.000,0.000,0.000,0.000,586563.687
524224.730,4778999.490,1531.540,8974.000,1.000,0.000,0.000,0.000,2.000,0.000,0.000,0.000,586563.680
524225.350,4778999.670,1531.630,9749.000,1.000,0.000,0.000,0.000,2.000,0.000,0.000,0.000,586563.673
524225.950,4778999.850,1531.710,9233.000,1.000,0.000,0.000,0.000,2.000,0.000,0.000,0.000,586563.666
524226.550,4778999.320,1531.840,11299.000,1.000,0.000,0.000,0.000,2.000,0.000,0.000,0.000,586563.666
524227.040,4778999.540,1531.870,10266.000,1.000,0.000,0.000,0.000,2.000,0.000,0.000,0.000,586563.659
524227.490,4778999.770,1531.990,10007.000,1.000,0.000,0.000,0.000,2.000,0.000,0.000,0.000,586563.652
524228.010,4778999.910,1531.980,10266.000,1.000,0.000,0.000,0.000,2.000,0.000,0.000,0.000,586563.645
524228.650,4778999.350,1532.080,7941.000,1.000,0.000,0.000,0.000,2.000,0.000,0.000,0.000,586563.645
524229.010,4778999.640,1532.130,10266.000,1.000,0.000,0.000,0.000,2.000,0.000,0.000,0.000,586563.638
524229.470,4778999.900,1532.210,10330.000,1.000,0.000,0.000,0.000,2.000,0.000,0.000,0.000,586563.631
524230.070,4778999.370,1532.260,10136.000,1.000,0.000,0.000,0.000,2.000,0.000,0.000,0.000,586563.631
524230.470,4778999.710,1532.330,9168.000,1.000,0.000,0.000,0.000,2.000,0.000,0.000,0.000,586563.624
524231.540,4778999.450,1532.500,10588.000,1.000,0.000,0.000,0.000,2.000,0.000,0.000,0.000,586563.616
524231.970,4778999.730,1532.560,10653.000,1.000,0.000,0.000,0.000,2.000,0.000,0.000,0.000,586563.609
524232.420,4778999.980,1532.610,10136.000,1.000,0.000,0.000,0.000,2.000,0.000,0.000,0.000,586563.602
524233.060,4778999.420,1532.750,10266.000,1.000,0.000,0.000,0.000,2.000,0.000,0.000,0.000,586563.602
524233.530,4778999.680,1532.860,10782.000,1.000,0.000,0.000,0.000,2.000,0.000,0.000,0.000,586563.595
524234.150,4778999.830,1532.920,9684.000,1.000,0.000,0.000,0.000,2.000,0.000,0.000,0.000,586563.588
524234.780,4778999.270,1533.070,9814.000,1.000,0.000,0.000,0.000,2.000,0.000,0.000,0.000,586563.588
524235.240,4778999.600,1533.100,8781.000,1.000,0.000,0.000,0.000,2.000,0.000,0.000,0.000,586563.581
524235.880,4778999.800,1533.200,8522.000,1.000,0.000,0.000,0.000,2.000,0.000,0.000,0.000,586563.574
524236.450,4778999.290,1533.350,10782.000,1.000,0.000,0.000,0.000,2.000,0.000,0.000,0.000,586563.574
524237.720,4778999.650,1533.490,10911.000,1.000,0.000,0.000,0.000,2.000,0.000,0.000,0.000,586563.560
524237.120,4778999.460,1533.380,11492.000,1.000,0.000,0.000,0.000,2.000,0.000,0.000,0.000,586563.567
524238.260,4778999.830,1533.610,10395.000,1.000,0.000,0.000,0.000,2.000,0.000,0.000,0.000,586563.553
524238.880,4778999.280,1533.710,8587.000,1.000,0.000,0.000,0.000,2.000,0.000,0.000,0.000,586563.553
524238.750,4778999.940,1533.680,10266.000,1.000,0.000,0.000,0.000,2.000,0.000,0.000,0.000,586563.546
524239.390,4778999.380,1533.790,10201.000,1.000,0.000,0.000,0.000,2.000,0.000,0.000,0.000,586563.546
524239.780,4778999.580,1533.930,11557.000,1.000,0.000,0.000,0.000,2.000,0.000,0.000,0.000,586563.539
524241.040,4778999.500,1534.160,9233.000,1.000,0.000,0.000,0.000,2.000,0.000,0.000,0.000,586563.525
524240.210,4778999.710,1533.980,10266.000,1.000,0.000,0.000,0.000,2.000,0.000,0.000,0.000,586563.532
524241.440,4778999.700,1534.180,10976.000,1.000,0.000,0.000,0.000,2.000,0.000,0.000,0.000,586563.518
524241.750,4778999.980,1534.190,10201.000,1.000,0.000,0.000,0.000,2.000,0.000,0.000,0.000,586563.511
524242.400,4778999.410,1534.370,10007.000,1.000,0.000,0.000,0.000,2.000,0.000,0.000,0.000,586563.511
524243.190,4778999.860,1534.440,9297.000,1.000,0.000,0.000,0.000,2.000,0.000,0.000,0.000,586563.497
524243.790,4778999.330,1534.580,9233.000,1.000,0.000,0.000,0.000,2.000,0.000,0.000,0.000,586563.497
524242.780,4778999.620,1534.420,9426.000,1.000,0.000,0.000,0.000,2.000,0.000,0.000,0.000,586563.504
524244.290,4778999.500,1534.690,9168.000,1.000,0.000,0.000,0.000,2.000,0.000,0.000,0.000,586563.489
524244.820,4778999.670,1534.760,9426.000,1.000,0.000,0.000,0.000,2.000,0.000,0.000,0.000,586563.482
524246.620,4778999.530,1535.180,10459.000,1.000,0.000,0.000,0.000,2.000,0.000,0.000,0.000,586563.468
524245.500,4778999.770,1534.900,10136.000,1.000,0.000,0.000,0.000,2.000,0.000,0.000,0.000,586563.475
524246.110,4778999.240,1535.100,11492.000,1.000,0.000,0.000,0.000,2.000,0.000,0.000,0.000,586563.475
524247.340,4778999.650,1535.250,10718.000,1.000,0.000,0.000,0.000,2.000,0.000,0.000,0.000,586563.461
524249.410,4778999.440,1535.630,8006.000,1.000,0.000,0.000,0.000,2.000,0.000,0.000,0.000,586563.447
524248.010,4778999.860,1535.310,9426.000,1.000,0.000,0.000,0.000,2.000,0.000,0.000,0.000,586563.454
524248.630,4778999.320,1535.580,10330.000,1.000,0.000,0.000,0.000,2.000,0.000,0.000,0.000,586563.454
524250.180,4778999.510,1535.680,8070.000,1.000,0.000,0.000,0.000,2.000,0.000,0.000,0.000,586563.440
524251.320,4778999.750,1535.860,8264.000,1.000,0.000,0.000,0.000,2.000,0.000,0.000,0.000,586563.426
524250.840,4778999.580,1535.760,8781.000,1.000,0.000,0.000,0.000,2.000,0.000,0.000,0.000,586563.433
524252.730,4778999.500,1536.200,10911.000,1.000,0.000,0.000,0.000,2.000,0.000,0.000,0.000,586563.412
524251.810,4778999.820,1535.950,8845.000,1.000,0.000,0.000,0.000,2.000,0.000,0.000,0.000,586563.419
524252.450,4778999.250,1536.160,10976.000,1.000,0.000,0.000,0.000,2.000,0.000,0.000,0.000,586563.419
524253.220,4778999.580,1536.320,10847.000,1.000,0.000,0.000,0.000,2.000,0.000,0.000,0.000,586563.405
524254.260,4778999.800,1536.420,10136.000,1.000,0.000,0.000,0.000,2.000,0.000,0.000,0.000,586563.391
524254.840,4778999.280,1536.520,8458.000,1.000,0.000,0.000,0.000,2.000,0.000,0.000,0.000,586563.391
524253.690,4778999.720,1536.380,11751.000,1.000,0.000,0.000,0.000,2.000,0.000,0.000,0.000,586563.398
524255.870,4778999.580,1536.780,10653.000,1.000,0.000,0.000,0.000,2.000,0.000,0.000,0.000,586563.377
524254.780,4778999.940,1536.510,9684.000,1.000,0.000,0.000,0.000,2.000,0.000,0.000,0.000,586563.384
524255.420,4778999.370,1536.670,9297.000,1.000,0.000,0.000,0.000,2.000,0.000,0.000,0.000,586563.384
524257.100,4778999.740,1536.970,10136.000,1.000,0.000,0.000,0.000,2.000,0.000,0.000,0.000,586563.362
524256.450,4778999.670,1536.870,8458.000,1.000,0.000,0.000,0.000,2.000,0.000,0.000,0.000,586563.370
524258.690,4778999.830,1537.270,10976.000,1.000,0.000,0.000,0.000,2.000,0.000,0.000,0.000,586563.348
524259.280,4778999.300,1537.360,8587.000,1.000,0.000,0.000,0.000,2.000,0.000,0.000,0.000,586563.348
524257.790,4778999.860,1537.080,9233.000,1.000,0.000,0.000,0.000,2.000,0.000,0.000,0.000,586563.355
524258.440,4778999.280,1537.200,8070.000,1.000,0.000,0.000,0.000,2.000,0.000,0.000,0.000,586563.355
524260.930,4778999.590,1537.590,9168.000,1.000,0.000,0.000,0.000,2.000,0.000,0.000,0.000,586563.334
524260.070,4778999.460,1537.450,10007.000,1.000,0.000,0.000,0.000,2.000,0.000,0.000,0.000,586563.341
524263.400,4778999.680,1537.910,9426.000,1.000,0.000,0.000,0.000,2.000,0.000,0.000,0.000,586563.313
524262.590,4778999.690,1537.820,11621.000,1.000,0.000,0.000,0.000,2.000,0.000,0.000,0.000,586563.320
524261.770,4778999.640,1537.700,10782.000,1.000,0.000,0.000,0.000,2.000,0.000,0.000,0.000,586563.327
